ply
format ascii 1.0
element face 0
property list uchar int vertex_indices
element vertex 105
property float x
property float y
property float z
property uchar diffuse_red
property uchar diffuse_green
property uchar diffuse_blue
end_header
9.284629e-01 3.637716e-02 2.740220e+00 136 124 98
1.068611e+00 3.848390e-01 2.752671e+00 64 56 43
8.842362e-01 -1.986346e-01 2.829048e+00 159 157 152
8.284914e-01 -5.576616e-01 3.008633e+00 165 164 165
8.244018e-01 -6.509684e-01 3.074326e+00 135 135 132
8.499905e-01 -4.896082e-01 2.987718e+00 123 125 122
8.367196e-01 -5.150477e-01 2.987889e+00 94 97 102
1.158377e+00 5.349852e-01 2.814102e+00 135 130 126
9.118469e-01 -3.831197e-02 2.762957e+00 131 124 99
9.057558e-01 -1.062141e-01 2.798394e+00 163 163 155
8.388615e-01 -3.936400e-01 2.901461e+00 129 128 129
8.568035e-01 -4.623714e-01 2.977359e+00 133 131 126
8.230796e-01 -5.525376e-01 2.997178e+00 169 166 161
9.042596e-01 -3.149529e-02 2.747334e+00 78 67 47
9.063258e-01 -4.556877e-02 2.759510e+00 72 62 37
8.997831e-01 -5.773890e-02 2.757722e+00 131 123 101
9.044970e-01 -7.639696e-02 2.776981e+00 93 88 67
8.812142e-01 -1.777736e-01 2.810253e+00 78 70 59
8.746047e-01 -2.125861e-01 2.824464e+00 162 159 154
8.577258e-01 -3.705112e-01 2.911504e+00 137 136 131
8.629834e-01 -3.911908e-01 2.934121e+00 139 133 120
8.528548e-01 -5.399518e-01 3.029488e+00 78 77 72
8.478238e-01 -6.502308e-01 3.105977e+00 89 89 91
8.354726e-01 -7.463679e-01 3.163138e+00 101 99 100
9.223778e-01 -1.243982e-02 2.762121e+00 84 80 64
8.565566e-01 -3.516405e-01 2.896212e+00 73 72 69
8.511624e-01 -9.259160e-01 3.325808e+00 115 111 112
1.007138e+00 2.001696e-01 2.760431e+00 39 38 34
1.007138e+00 2.001696e-01 2.760431e+00 39 38 34
9.261141e-01 -5.823723e-02 2.797169e+00 133 129 126
8.498336e-01 -4.615589e-01 2.966803e+00 116 119 116
1.006472e+00 -2.525232e-02 2.899174e+00 129 116 105
9.184825e-01 -3.410923e-01 2.980209e+00 96 84 68
1.263684e+00 6.680743e-01 2.911265e+00 46 42 35
9.367903e-01 1.280933e-02 2.767500e+00 156 152 146
1.110679e+00 -1.889607e-01 3.171721e+00 122 117 115
9.567017e-01 -2.339924e-01 2.962750e+00 157 145 132
8.921713e-01 -4.353281e-01 3.009211e+00 169 170 165
1.339908e+00 6.465566e-01 3.041481e+00 141 140 135
1.186745e+00 5.535230e-01 2.848183e+00 150 147 146
1.250218e+00 -1.071882e-01 3.337586e+00 59 55 44
1.037968e+00 -1.689690e-01 3.044251e+00 119 118 114
9.490864e-01 -1.550963e-01 2.896900e+00 37 27 18
8.795105e-01 -8.204707e-01 3.282226e+00 128 121 113
1.422535e+00 7.321651e-01 3.129668e+00 35 32 26
1.315806e+00 5.743978e-01 3.040095e+00 53 54 46
9.977922e-01 1.223547e-01 2.792187e+00 106 100 90
1.014946e+00 8.388403e-02 2.842355e+00 36 29 21
9.755615e-01 8.538480e-02 2.780834e+00 47 43 34
1.604216e+00 1.151834e+00 3.224494e+00 48 31 23
1.164254e+00 5.361831e-01 2.822274e+00 43 38 35
1.032189e+00 1.273498e-01 2.842065e+00 121 111 101
1.223151e+00 1.632710e-02 3.214937e+00 56 49 42
1.223151e+00 1.632710e-02 3.214937e+00 56 49 42
8.792665e-01 -5.001354e-01 3.037927e+00 118 117 113
1.260259e+00 -1.909393e-02 3.296730e+00 163 157 151
1.252250e+00 -2.697085e-02 3.289024e+00 163 157 151
9.396509e-01 9.626983e-02 2.720370e+00 65 64 52
1.007605e+00 -1.393435e-01 2.976985e+00 127 117 106
9.355094e-01 -3.416663e-01 3.006349e+00 144 135 118
9.059820e-01 -3.499846e-01 2.967810e+00 70 61 45
9.237158e-01 -3.809513e-01 3.016624e+00 86 77 64
8.499905e-01 -4.896082e-01 2.987718e+00 123 125 122
8.348705e-01 -6.851827e-01 3.114942e+00 147 140 135
1.362844e+00 7.408094e-01 3.030693e+00 53 49 44
1.158377e+00 5.349852e-01 2.814102e+00 135 130 126
1.180778e+00 5.490975e-01 2.840906e+00 149 145 144
1.276502e+00 5.000926e-01 3.017046e+00 153 146 136
1.190392e+00 3.142858e-01 2.981927e+00 110 108 110
1.381400e+00 1.892714e-01 3.361001e+00 73 68 69
9.640852e-01 3.269958e-02 2.796130e+00 58 53 47
9.592338e-01 -1.533697e-01 2.911223e+00 122 115 98
8.902839e-01 -1.209350e-01 2.785394e+00 125 115 90
9.282187e-01 -2.700895e-01 2.944583e+00 87 72 53
9.282187e-01 -2.700895e-01 2.944583e+00 87 72 53
8.488685e-01 -8.127297e-01 3.233316e+00 116 117 117
8.457496e-01 -8.666939e-01 3.271466e+00 176 176 175
8.461708e-01 -8.558792e-01 3.263671e+00 176 176 175
1.349938e+00 7.358655e-01 3.012972e+00 113 110 106
1.377516e+00 7.002790e-01 3.074355e+00 128 123 117
1.047535e+00 3.298314e-01 2.749431e+00 51 48 35
1.047535e+00 3.298314e-01 2.749431e+00 51 48 35
1.004350e+00 2.496742e-01 2.728448e+00 87 84 72
1.016898e+00 -7.598636e-02 2.949017e+00 133 120 112
9.656354e-01 -9.270257e-02 2.880251e+00 124 114 105
8.850168e-01 -1.806096e-01 2.817860e+00 157 150 143
8.852598e-01 -2.324724e-01 2.853914e+00 79 78 73
9.507187e-01 -3.030249e-01 3.002046e+00 93 85 72
8.646904e-01 -3.547711e-01 2.910348e+00 85 79 71
8.620784e-01 -4.262516e-01 2.958397e+00 88 83 73
8.565000e-01 -4.990762e-01 3.004170e+00 140 139 137
8.235200e-01 -5.076685e-01 2.964207e+00 77 75 72
8.514151e-01 -6.829625e-01 3.136187e+00 152 147 150
8.515843e-01 -7.408315e-01 3.181056e+00 82 77 80
1.644949e+00 2.165045e-01 2.367431e+00 77 71 67
4.278591e-01 -1.797807e-01 1.283372e+00 0 255 0
3.798437e-01 -1.660006e-01 1.285524e+00 255 255 0
-8.442227e-02 3.776458e-01 8.872288e-01 255 0 0
-5.078783e-02 3.634265e-01 8.530742e-01 255 255 0
1.100449e+00 6.113980e-01 -3.926600e-01 0 255 0
1.097858e+00 6.003888e-01 -3.439560e-01 255 255 0
1.026852e+00 -1.464384e-01 1.447837e+00 255 0 0
1.055571e+00 -1.513400e-01 1.488471e+00 255 255 0
6.224530e-01 7.365300e-02 6.421217e-01 0 255 0
6.609267e-01 6.162122e-02 6.717023e-01 255 255 0
