ply
format ascii 1.0
element face 0
property list uchar int vertex_indices
element vertex 102
property float x
property float y
property float z
property uchar diffuse_red
property uchar diffuse_green
property uchar diffuse_blue
end_header
9.422299e-01 3.609142e-02 2.773008e+00 136 124 98
1.107440e+00 4.227985e-01 2.805575e+00 64 56 43
8.921965e-01 -2.015952e-01 2.854646e+00 159 157 152
8.331820e-01 -5.888093e-01 3.065314e+00 165 164 165
8.293954e-01 -6.860650e-01 3.138220e+00 135 135 132
8.550993e-01 -4.898326e-01 3.013257e+00 123 125 122
8.419223e-01 -5.265797e-01 3.026597e+00 94 97 102
1.208475e+00 5.776180e-01 2.883948e+00 135 130 126
9.237601e-01 -4.122336e-02 2.794108e+00 131 124 99
9.143185e-01 -1.115670e-01 2.824236e+00 163 163 155
8.442847e-01 -4.048279e-01 2.939449e+00 129 128 129
8.625809e-01 -4.527514e-01 2.994340e+00 133 131 126
8.280718e-01 -5.907075e-01 3.061488e+00 169 166 161
9.178094e-01 -3.227436e-02 2.782089e+00 78 67 47
9.186334e-01 -4.688924e-02 2.791359e+00 72 62 37
9.127985e-01 -5.793313e-02 2.790965e+00 131 123 101
9.158462e-01 -7.414181e-02 2.803871e+00 93 88 67
8.903206e-01 -1.814954e-01 2.839567e+00 78 70 59
8.830347e-01 -2.171946e-01 2.854145e+00 162 159 154
8.637953e-01 -3.706991e-01 2.936348e+00 137 136 131
8.681592e-01 -3.862875e-01 2.952253e+00 139 133 120
8.582771e-01 -5.274277e-01 3.045246e+00 78 77 72
8.531212e-01 -6.391578e-01 3.125671e+00 89 89 91
8.426022e-01 -7.691371e-01 3.218680e+00 101 99 100
9.356927e-01 -8.881934e-03 2.790046e+00 84 80 64
8.631386e-01 -3.528033e-01 2.923060e+00 73 72 69
8.599784e-01 -8.989985e-01 3.344165e+00 115 111 112
1.022596e+00 1.916789e-01 2.794632e+00 39 38 34
1.022596e+00 1.916789e-01 2.794632e+00 39 38 34
9.339122e-01 -6.779976e-02 2.821593e+00 133 129 126
8.549480e-01 -4.641338e-01 2.994180e+00 116 119 116
1.005314e+00 -3.545353e-02 2.894085e+00 129 116 105
9.213433e-01 -3.219718e-01 2.970639e+00 96 84 68
1.300054e+00 6.778689e-01 2.971705e+00 46 42 35
9.475348e-01 8.448226e-03 2.794427e+00 156 152 146
1.073729e+00 -1.783176e-01 3.074568e+00 122 117 115
9.561009e-01 -2.201351e-01 2.945412e+00 157 145 132
8.974713e-01 -3.986351e-01 2.995858e+00 169 170 165
1.336120e+00 6.195003e-01 3.039770e+00 141 140 135
1.220084e+00 5.625990e-01 2.903886e+00 150 147 146
1.177868e+00 -1.020827e-01 3.169747e+00 59 55 44
1.023135e+00 -1.570495e-01 2.992926e+00 119 118 114
9.517521e-01 -1.496099e-01 2.894236e+00 37 27 18
8.828589e-01 -7.232044e-01 3.225229e+00 128 121 113
1.393600e+00 6.783615e-01 3.098164e+00 35 32 26
1.303925e+00 5.460352e-01 3.022443e+00 53 54 46
1.002111e+00 1.018878e-01 2.812255e+00 106 100 90
1.014305e+00 6.084154e-02 2.850034e+00 36 29 21
9.842318e-01 7.317960e-02 2.804873e+00 47 43 34
1.629406e+00 1.131533e+00 3.290565e+00 48 31 23
1.208100e+00 5.659564e-01 2.887057e+00 43 38 35
1.034705e+00 1.077577e-01 2.851221e+00 121 111 101
1.159582e+00 -1.065032e-03 3.084555e+00 56 49 42
1.159582e+00 -1.065032e-03 3.084555e+00 56 49 42
8.826597e-01 -4.615929e-01 3.023597e+00 118 117 113
1.673265e+00 1.227953e+00 3.329922e+00 66 64 53
1.203571e+00 3.123405e-01 2.980791e+00 138 138 138
1.174659e+00 -3.149431e-02 3.123290e+00 163 157 151
1.174659e+00 -3.149431e-02 3.123290e+00 163 157 151
9.586802e-01 1.044756e-01 2.757954e+00 65 64 52
9.984737e-01 -1.353675e-01 2.946511e+00 127 117 106
9.367811e-01 -3.076657e-01 2.979961e+00 144 135 118
9.100535e-01 -3.225967e-01 2.957030e+00 70 61 45
9.263730e-01 -3.404435e-01 2.989543e+00 86 77 64
8.550993e-01 -4.898326e-01 3.013257e+00 123 125 122
8.406250e-01 -6.988299e-01 3.159905e+00 147 140 135
1.354822e+00 6.725476e-01 3.047339e+00 53 49 44
1.208475e+00 5.776180e-01 2.883948e+00 135 130 126
1.214759e+00 5.557386e-01 2.899084e+00 149 145 144
1.257635e+00 4.734928e-01 2.987238e+00 153 146 136
1.323969e+00 3.871619e-01 3.115665e+00 120 117 108
1.323969e+00 3.871619e-01 3.115665e+00 120 117 108
1.180132e+00 3.019669e-01 2.953380e+00 110 108 110
1.261201e+00 1.516508e-01 3.142329e+00 73 68 69
9.767981e-01 3.744721e-02 2.814574e+00 58 53 47
9.600175e-01 -1.478702e-01 2.903553e+00 122 115 98
8.996357e-01 -1.245231e-01 2.814941e+00 125 115 90
9.315423e-01 -2.506120e-01 2.934597e+00 87 72 53
9.315423e-01 -2.506120e-01 2.934597e+00 87 72 53
8.555579e-01 -7.975156e-01 3.255225e+00 116 117 117
8.540721e-01 -8.465631e-01 3.294382e+00 176 176 175
8.540721e-01 -8.465631e-01 3.294382e+00 176 176 175
1.359918e+00 6.936572e-01 3.047358e+00 113 110 106
1.367925e+00 6.656615e-01 3.067534e+00 128 123 117
1.075426e+00 3.481761e-01 2.792936e+00 51 48 35
1.075426e+00 3.481761e-01 2.792936e+00 51 48 35
1.030522e+00 2.684464e-01 2.770192e+00 87 84 72
1.009318e+00 -7.905143e-02 2.925852e+00 133 120 112
9.687993e-01 -9.135845e-02 2.879731e+00 124 114 105
8.935117e-01 -1.800184e-01 2.842225e+00 157 150 143
8.929166e-01 -2.305559e-01 2.874305e+00 79 78 73
9.495502e-01 -2.817690e-01 2.978469e+00 93 85 72
8.705271e-01 -3.529741e-01 2.931613e+00 85 79 71
8.677643e-01 -4.152308e-01 2.972757e+00 88 83 73
8.609619e-01 -4.971015e-01 3.025274e+00 140 139 137
8.277215e-01 -5.472034e-01 3.027783e+00 77 75 72
8.566483e-01 -6.637092e-01 3.148912e+00 152 147 150
8.574989e-01 -7.153635e-01 3.190947e+00 82 77 80
6.541914e-01 -2.858827e-01 8.608187e-01 0 255 0
6.110096e-01 -2.774721e-01 8.370575e-01 255 255 0
-2.326379e-01 4.182717e-01 8.623787e-01 255 0 0
-2.071653e-01 4.063046e-01 8.210516e-01 255 255 0
